ply
format ascii 1.0
comment Exported by Aspose.3D 21.12
element vertex 416
property float x
property float y
property float z
element face 0
property list uchar int vertex_index
end_header
38.08000183105469 2.6666667461395264 8.089558601379395 -0.3981976594243731 0.04786023923328944 -0.9114442637988499
38.504302978515625 2.6666667461395264 7.859598159790039 -0.5793520957231522 0.07043161988258362 -0.8011774023373921
38.061279296875 2.215690851211548 8.042319297790527 -0.4055575480063756 0.23054439450303713 -0.8743548194567362
37.65729904174805 0.8407030701637268 7.022933483123779 -0.1648641088977456 0.9022401571273804 -0.3762549211581548
37.79887390136719 1.0821548700332642 7.380171775817871 -0.2644178767999013 0.7766821980476379 -0.5577398538589478
38.078372955322266 1.0270588397979736 7.134954929351807 -0.36041395579065594 0.8058783241680689 -0.4406289756298065
37.95265197753906 0.7391921281814575 6.298534393310547 -0.35177724435925484 0.9238840043544769 -0.06780974380671978
38.318695068359375 1.0270588397979736 6.874870777130127 -0.47756541272004444 0.7988878985246022 -0.3244404370586077
37.91709899902344 1.4030606746673584 7.678504943847656 -0.29312615990638735 0.6361946940422059 -0.7035166263580322
38.15724563598633 1.4754219055175781 7.623010158538818 -0.42644819617271423 0.5929239491621653 -0.6646363139152527
38.00605773925781 1.7873289585113525 7.90297269821167 -0.36339178681373596 0.4493644138177236 -0.8061524629592896
38.47194290161133 1.0270588397979736 6.555632591247559 -0.5424190121037619 0.8058785370418003 -0.1727249968264784
38.53755569458008 1.4754219055175781 7.31817626953125 -0.5835731128851572 0.580195739865303 -0.5392335454622904
38.53883361816406 2.0403921604156494 7.709420680999756 -0.5800905610833849 0.3103643911225455 -0.7313292963164193
38.862205505371094 2.6666667461395264 7.535837173461914 -0.7550978461901346 0.07689040154218674 -0.6372147798538208
39.36000061035156 45.33333206176758 -6.205449104309082 -0.994506965080897 -0.05584986135363579 0.03956690803170204
39.30253601074219 45.33333206176758 -6.684628486633301 -0.9676506817340851 -0.0704305979112784 0.20486927529176074
39.30253601074219 2.6666667461395264 -6.684628486633301 -0.9582669933636982 0.07043063392241795 0.24343155572811762
39.13340759277344 45.33333206176758 -7.136634826660156 -0.8888241549332936 -0.07689031461874643 0.43196583290894824
39.13340759277344 2.6666667461395264 -7.136634826660156 -0.8705889781316121 0.0768902525305748 0.46721649169921875
38.862205505371094 45.33333206176758 -7.535837173461914 -0.7550978660583496 -0.07689045866330464 0.6372147798538208
38.862205505371094 2.6666667461395264 -7.535837173461914 -0.7290440698464711 0.07689039905865987 0.667155643304189
38.504302978515625 45.33333206176758 -7.859598159790039 -0.5646579563617706 -0.06036993329014097 0.812320385660444
38.504302978515625 2.6666667461395264 -7.859598159790039 -0.561052531003952 0.08451794385910034 0.8130942583084106
38.08000183105469 2.6666667461395264 -8.089558601379395 -0.4213906526565552 0.04462049007415772 0.9012194514274597
38.08000183105469 45.33333206176758 -8.089558601379395 -0.385148545106252 -0.05583677192529042 0.9168218870957692
-38.08000183105469 45.33333206176758 -8.089558601379395 0.3939208030700684 -0.06700410693883896 0.9121944546699524
-38.08000183105469 2.6666667461395264 -8.089558601379395 0.3981976594243731 0.04786023923328944 0.9114442637988499
-32.44121551513672 45.33333206176758 -10.136930465698242 0.3130769928296407 -0.03730632737278938 0.9470797578493754
-32.44121551513672 2.6666667461395264 -10.136930465698242 0.3070753514766693 0.06715144366025926 0.9472999453544617
-26.693151473999023 2.6666667461395264 -11.853719711303711 0.25736389060815174 0.055959260712067284 0.9626288016637166
-26.693151473999023 45.33333206176758 -11.853719711303711 0.25730518251657486 -0.05595928554733594 0.9626444975535074
-20.85516929626465 2.6666667461395264 -13.234142303466797 0.2010833571354548 0.055959024777015046 0.975938469171524
-20.85516929626465 45.33333206176758 -13.234142303466797 0.20102384438117343 -0.05595896517237027 0.9759507477283478
-14.946932792663574 2.6666667461395264 -14.27354907989502 0.14412550876537958 0.05595886458953221 0.9859606226285298
-14.946932792663574 45.33333206176758 -14.27354907989502 0.14406537637114525 -0.05595880374312401 0.9859694143136342
-8.988347053527832 2.6666667461395264 -14.968438148498535 0.08668211661279202 0.055958566566308335 0.9926614761352539
-8.988347053527832 45.33333206176758 -14.968438148498535 0.08662157505750656 -0.05595862368742625 0.9926667511463165
-2.999483823776245 45.33333206176758 -15.316468238830566 0.03466322496533394 -0.06714992225170135 0.9952242255210877
-2.999483823776245 2.6666667461395264 -15.316468238830566 0.024811505739177973 0.0479642738189016 0.9965872083391462
2.999483823776245 45.33333206176758 -15.316468238830566 -0.024811505739177973 -0.04796412480728966 0.9965872423989431
2.999483823776245 2.6666667461395264 -15.316468238830566 -0.03466322273015976 0.06715013086795807 0.9952241659164429
8.988347053527832 45.33333206176758 -14.968438148498535 -0.08085158914327623 -0.06715006828308105 0.9925400614738464
8.988347053527832 2.6666667461395264 -14.968438148498535 -0.09079488526497567 0.047964682536465776 0.9927526882716587
14.946932792663574 45.33333206176758 -14.27354907989502 -0.14008398141179765 -0.0479645910007613 0.9870046206883021
14.946932792663574 2.6666667461395264 -14.27354907989502 -0.1497114896774292 0.06715077310800553 0.9845095753669739
20.85516929626465 45.33333206176758 -13.234142303466797 -0.1952780216932297 -0.06715062111616135 0.9764932632446289
20.85516929626465 2.6666667461395264 -13.234142303466797 -0.2051790143762316 0.047964977366583686 0.9755527206829615
26.693151473999023 45.33333206176758 -11.853719711303711 -0.25347049108573366 -0.04796493159873145 0.9641339268003191
26.693151473999023 2.6666667461395264 -11.853719711303711 -0.26274419426918033 0.06715135425329209 0.9605404734611511
32.44121551513672 45.33333206176758 -10.136930465698242 -0.3070753574371338 -0.06715123504400254 0.9472999572753906
32.44121551513672 2.6666667461395264 -10.136930465698242 -0.31680071353912354 0.0479656777211598 0.9452188440731593
-14.836586952209473 1.0821548700332642 -13.518508911132812 0.09041864859561125 0.776790589094162 0.6128293474515278
-8.88857364654541 0.8407030701637268 -13.825455665588379 0.038462837847570576 0.8952315946420033 0.42939806977907813
-8.921990394592285 1.0821548700332642 -14.208268165588379 0.05471301668634017 0.7767902612686157 0.6170431872208912
-8.812105178833008 0.6399999856948853 -12.949448585510254 0.0037102067976125647 0.9973029834883553 0.04784310396228517
-8.851323127746582 0.6908127665519714 -13.39871597290039 0.021360089536756277 0.9687735040982564 0.22008998692035675
-14.65385627746582 0.6399999856948853 -12.268184661865234 0.00907141286879778 0.9962241768836976 0.06656621098518371
14.917909622192383 1.7873289585113525 -14.074954986572266 -0.1289614550769329 0.43101345499356586 0.8856591085592905
20.765954971313477 1.4030606746673584 -12.801081657409668 -0.1560579054057598 0.6194145778814951 0.7608742515246073
20.814672470092773 1.7873289585113525 -13.037567138671875 -0.1801258623600006 0.4310133457183838 0.8766856789588928
-14.719071388244629 0.6908127665519714 -12.714420318603516 0.034092665339509644 0.9687734842300415 0.21848014245430628
-14.781017303466797 0.8407030701637268 -13.138279914855957 0.06330963286260763 0.8952315847078959 0.4264433979988098
-38.00605773925781 1.7873289585113525 -7.90297269821167 0.36339178681373596 0.4493644138177236 0.8061524629592896
-32.37822341918945 1.7873289585113525 -9.946369171142578 0.2813558702667554 0.4310126155614853 0.8496248126029968
-38.061279296875 2.215690851211548 -8.042319297790527 0.4055575480063756 0.23054439450303713 0.8743548194567362
14.836586952209473 1.0821548700332642 -13.518508911132812 -0.08874306889871755 0.7767903606096903 0.6130744417508442
20.701204299926758 1.0821548700332642 -12.486775398254395 -0.12416104475657144 0.7767907977104187 0.6068929235140482
14.8829927444458 1.4030606746673584 -13.836041450500488 -0.11165284489591916 0.619414746761322 0.7686463892459869
-32.42526626586914 2.215690851211548 -10.088685035705566 0.30418114364147186 0.22103698054949442 0.9194018642107645
-2.998009204864502 2.215690851211548 -15.265677452087402 0.028343847642342247 0.22103583564360935 0.9679993192354838
-8.983928680419922 2.215690851211548 -14.917818069458008 0.08445470531781514 0.22103630503018695 0.9647244612375895
14.781017303466797 0.8407030701637268 -13.138279914855957 -0.06137818408509095 0.8952315946420033 0.42672568559646606
20.623668670654297 0.8407030701637268 -12.110410690307617 -0.08603135248025258 0.8952315549055735 0.42244619131088257
-37.91709899902344 1.4030606746673584 -7.678504943847656 0.29312615990638735 0.6361946940422059 0.7035166263580322
-32.30244064331055 1.4030606746673584 -9.717118263244629 0.24442491928736368 0.6194149255752563 0.7372515698273976
20.446243286132812 0.6399999856948853 -11.24915885925293 -0.011826212828358013 0.9968534608681996 0.05472126354773839
20.5372371673584 0.6908127665519714 -11.690858840942383 -0.04251882092406352 0.9687734643618265 0.21699779604872066
14.65385627746582 0.6399999856948853 -12.268184661865234 -0.010357965901494027 0.9962241649627686 0.06637821197509766
14.719071388244629 0.6908127665519714 -12.714420318603516 -0.02985805443798502 0.9687734941641489 0.21909895539283752
-8.970893859863281 1.7873289585113525 -14.768495559692383 0.07829838742812474 0.4310138374567032 0.8915671010812123
-2.993659496307373 1.7873289585113525 -15.115850448608398 0.02644210122525692 0.43101324141025543 0.8946082293987274
-37.79887390136719 1.0821548700332642 -7.380171775817871 0.2644178767999013 0.7766821980476379 0.5577398538589478
-32.201717376708984 1.0821548700332642 -9.412428855895996 0.19523253043492633 0.7767905195554097 0.5878942310810089
20.84491539001465 2.215690851211548 -13.184374809265137 -0.19516311834255853 0.22103667507568994 0.9485447208086649
26.680028915405273 2.215690851211548 -11.804630279541016 -0.24986435969670612 0.22103668749332428 0.9356247286001841
-37.65729904174805 0.8407030701637268 -7.022933483123779 0.1648641088977456 0.9022401571273804 0.3762549211581548
-32.08110809326172 0.8407030701637268 -9.047578811645508 0.13623952120542526 0.8952315946420033 0.40902452170848846
-2.9866526126861572 1.4030606746673584 -14.874500274658203 0.023214807113011677 0.6194151441256205 0.7763660152753193
-31.9466609954834 0.6908127665519714 -8.640863418579102 0.0714319006850322 0.9687734345595042 0.2092688890794913
-8.949896812438965 1.4030606746673584 -14.527957916259766 0.06821669948597749 0.619414856036504 0.7737118601799011
-31.80511474609375 0.6399999856948853 -8.212677001953125 0.017056473220388092 0.9968534807364146 0.0533230776588122
-37.33333206176758 0.6399999856948853 -6.205449104309082 0.06425612047314644 0.98980313539505 0.061970850186688554
-37.499481201171875 0.6908127665519714 -6.6247029304504395 0.09802638553082943 0.9659993648529053 0.20200460553169253
26.641319274902344 1.7873289585113525 -11.65982437133789 -0.23068340371052423 0.4310136387745539 0.8647588690121968
-2.97733998298645 1.0821548700332642 -14.553729057312012 0.018823038165767986 0.7767904102802277 0.6191780269145966
-26.680028915405273 2.215690851211548 -11.804630279541016 0.2503296534220377 0.22103718171517053 0.9355002144972483
-2.966188669204712 0.8407030701637268 -14.169623374938965 0.013486472889780998 0.8952314257621765 0.43090657889842987
26.578962326049805 1.4030606746673584 -11.426563262939453 -0.19993730634450912 0.6194145977497101 0.7505390743414561
-2.9406704902648926 0.6399999856948853 -13.290655136108398 0.001299664843827486 0.9962241888046265 0.06716881096363068
-2.9537575244903564 0.6908127665519714 -13.74144172668457 0.008555569763605792 0.9687735040982564 0.22095850730935732
-26.641319274902344 1.7873289585113525 -11.65982437133789 0.23159092664718628 0.431013286113739 0.8645164469877878
26.4960880279541 1.0821548700332642 -11.116543769836426 -0.15916097164154053 0.7767905592918396 0.5986677308877308
2.998009204864502 2.215690851211548 -15.265677452087402 -0.02786242589354515 0.22103576486309368 0.9680132667223612
-26.578962326049805 1.4030606746673584 -11.426563262939453 0.20124153792858124 0.6194148163000742 0.7501902679602305
26.396848678588867 0.8407030701637268 -10.74531078338623 -0.11039471874634424 0.8952315549055735 0.4167436361312866
26.169755935668945 0.6399999856948853 -9.895803451538086 -0.014980947598814964 0.9968534708023071 0.05394296223918597
26.286222457885742 0.6908127665519714 -10.331480979919434 -0.055036402617891625 0.9687733749548594 0.21416579062740007
2.993659496307373 1.7873289585113525 -15.115850448608398 -0.025503220657507576 0.431013286113739 0.8946354488531748
-26.4960880279541 1.0821548700332642 -11.116543769836426 0.1607969452937444 0.7767904500166575 0.5982305109500885
32.42526626586914 2.215690851211548 -10.088685035705566 -0.3000386476516724 0.1992127984762192 0.9260132431983948
38.061279296875 2.215690851211548 -8.042319297790527 -0.396069769348417 0.21359796289886746 0.8828832251685006
-26.396848678588867 0.8407030701637268 -10.74531078338623 0.1122804507613182 0.8952315946420033 0.4162394950787226
2.9866526126861572 1.4030606746673584 -14.874500274658203 -0.021865285312136013 0.6194148361682892 0.7764054437478383
-26.169755935668945 0.6399999856948853 -9.895803451538086 0.013934190695484478 0.9968534807364146 0.054222796112298965
-26.286222457885742 0.6908127665519714 -10.331480979919434 0.05917083875586589 0.9687733848889668 0.21306066463390985
2.97733998298645 1.0821548700332642 -14.553729057312012 -0.01713031499336163 0.7767906486988068 0.6192268828550974
32.37822341918945 1.7873289585113525 -9.946369171142578 -0.28598733991384506 0.39739321172237396 0.8651315569877625
38.00605773925781 1.7873289585113525 -7.90297269821167 -0.36339178681373596 0.44936446348826087 0.806152453025182
-20.84491539001465 2.215690851211548 -13.184374809265137 0.19563482205073038 0.22103693708777428 0.9484474758307139
2.966188669204712 0.8407030701637268 -14.169623374938965 -0.011535339678327242 0.8952313363552094 0.43096329271793365
32.30244064331055 1.4030606746673584 -9.717118263244629 -0.2510818615555763 0.5902341107527415 0.7595400710900624
2.9406704902648926 0.6399999856948853 -13.290655136108398 -0.0021661115655054646 0.9968534807364146 0.055942593763271965
2.9537575244903564 0.6908127665519714 -13.74144172668457 -0.004277788025016585 0.9687734842300415 0.22108270848790804
37.91709899902344 1.4030606746673584 -7.678504943847656 -0.2931261569261551 0.6361947059631348 0.7035166263580322
-20.814672470092773 1.7873289585113525 -13.037567138671875 0.18104581534862518 0.4310131718715032 0.8764962553977966
8.983928680419922 2.215690851211548 -14.917818069458008 -0.08397489227354527 0.22103635966777802 0.9647662738958994
32.201717376708984 1.0821548700332642 -9.412428855895996 -0.2035824880003929 0.7535128494103749 0.6158511936664581
37.79887390136719 1.0821548700332642 -7.380171775817871 -0.2644178867340088 0.7766821881135304 0.5577398637930552
-20.765954971313477 1.4030606746673584 -12.801081657409668 0.15738022699952126 0.6194148063659668 0.7606016894181569
-20.701204299926758 1.0821548700332642 -12.486775398254395 0.12581971660256386 0.7767907083034515 0.6065513491630554
8.970893859863281 1.7873289585113525 -14.768495559692383 -0.07736265224715073 0.43101347486178077 0.8916489680608113
32.08110809326172 0.8407030701637268 -9.047578811645508 -0.14586420357227325 0.879028856754303 0.4412493755420049
37.65729904174805 0.8407030701637268 -7.022933483123779 -0.16486410268892843 0.9022401372591654 0.3762549261252085
8.949896812438965 1.4030606746673584 -14.527957916259766 -0.06687172191838422 0.6194147765636444 0.7738294005393982
31.80511474609375 0.6399999856948853 -8.212677001953125 -0.015501627964632851 0.9973029664584568 0.045413998620850694
31.9466609954834 0.6908127665519714 -8.640863418579102 -0.07385341610227313 0.9652114595685686 0.22489119321107864
-20.623668670654297 0.8407030701637268 -12.110410690307617 0.08794313545028368 0.8952316443125407 0.4220521698395411
37.499481201171875 0.6908127665519714 -6.6247029304504395 -0.05915673511723677 0.9717199802398682 0.19574652860562006
-20.5372371673584 0.6908127665519714 -11.690858840942383 0.046710408913592495 0.9687734345595042 0.21613443021972972
-20.446243286132812 0.6399999856948853 -11.24915885925293 0.00922713561781815 0.9973029664584568 0.04709133399384362
8.921990394592285 1.0821548700332642 -14.208268165588379 -0.05302599413941304 0.7767904698848724 0.6171902020772297
-14.939584732055664 2.215690851211548 -14.223270416259766 0.14028105760614076 0.22103694329659143 0.9581997295220692
8.88857364654541 0.8407030701637268 -13.825455665588379 -0.036518254317343235 0.8952315151691437 0.4295678983132044
8.851323127746582 0.6908127665519714 -13.39871597290039 -0.017096719471737742 0.9687734842300415 0.2204621396958828
8.812105178833008 0.6399999856948853 -12.949448585510254 -0.004635412379034928 0.997302974973406 0.04776236202035631
-14.917909622192383 1.7873289585113525 -14.074954986572266 0.1298908529182275 0.43101373314857483 0.8855230708916981
-14.8829927444458 1.4030606746673584 -13.836041450500488 0.11298876379926999 0.6194143096605936 0.7684515019257863
14.939584732055664 2.215690851211548 -14.223270416259766 -0.13980445638298988 0.22103685388962427 0.9582694470882416
39.159297943115234 46.212669372558594 -6.205449104309082 -0.8834727704524994 -0.4494380454222361 0.053587024100124836
39.17564392089844 45.9596061706543 -6.77205753326416 -0.8936048235212053 -0.31036370779786787 0.26985107042959755
39.30918884277344 45.78430938720703 -6.205449104309082 -0.9624539117018381 -0.2305933857957522 0.06883921350042024
38.92768096923828 45.9596061706543 -7.2885966300964355 -0.7722554703553517 -0.30651461084683734 0.5246423284212748
38.95472717285156 46.52457809448242 -6.449149131774902 -0.7749979396661122 -0.5929226825634638 0.15158940448115268
38.81145095825195 46.52457809448242 -6.915013790130615 -0.7163050274054209 -0.5801944434642792 0.3438582196831703
37.499481201171875 47.30918884277344 -6.6247029304504395 -0.06335146687924863 -0.967322599887848 0.21383570432662966
37.549503326416016 47.33504867553711 -6.4373650550842285 -0.1405404891818762 -0.9750583052635193 0.10532379299402238
37.33333206176758 47.36000061035156 -6.205449104309082 -0.07032031486076967 -0.9898030757904053 0.05304545909166336
37.89792251586914 47.260807037353516 -6.476478576660156 -0.28257877486092703 -0.9386329991476876 0.1170885967356818
37.793304443359375 47.260807037353516 -6.6304731369018555 -0.2668241113424301 -0.9233772993087769 0.24675568342208865
37.648040771484375 47.260807037353516 -6.746909141540527 -0.18645641803741456 -0.9335277080535889 0.2756814658641815
38.061279296875 45.78430938720703 -8.042319297790527 -0.40555765231450397 -0.23054493218660355 0.8743545313676198
37.65729904174805 47.159297943115234 -7.022933483123779 -0.16486801703770954 -0.9022407134373982 0.3762529989083608
37.78430938720703 47.30918884277344 -6.205449104309082 -0.20525680979092914 -0.9706257085005442 0.016069101790587105
37.79887390136719 46.9178466796875 -7.380171775817871 -0.26441804816325504 -0.7766816318035126 0.5577402114868164
38.078372955322266 46.97294235229492 -7.134954929351807 -0.36041412183216637 -0.805878528526851 0.44062776224953787
37.95265197753906 47.260807037353516 -6.298534393310547 -0.3517788089811802 -0.9238843619823456 0.06781685724854469
38.212669372558594 47.159297943115234 -6.205449104309082 -0.41054421166578925 -0.902271697918574 0.020421101401249565
38.318695068359375 46.97294235229492 -6.874870777130127 -0.4775647620360056 -0.7988880773385365 0.3244399900237719
37.91709899902344 46.59693908691406 -7.678504943847656 -0.29312624335289 -0.6361929893493653 0.7035183191299439
38.15724563598633 46.52457809448242 -7.623010158538818 -0.4264483501513799 -0.5929226527611414 0.6646373669306437
38.00605773925781 46.212669372558594 -7.90297269821167 -0.36339177191257477 -0.44936391711235046 0.8061529298623402
38.47194290161133 46.97294235229492 -6.555632591247559 -0.5424179647650037 -0.8058787499155317 0.17272559234074183
38.59693908691406 46.9178466796875 -6.205449104309082 -0.6159695585568745 -0.7767414152622223 0.048906659086545304
38.53755569458008 46.52457809448242 -7.31817626953125 -0.5835736691951752 -0.5801947265863419 0.5392340620358784
38.53883361816406 45.9596061706543 -7.709420680999756 -0.580090765442167 -0.3103641250303813 0.731329424040658
38.9178466796875 46.59693908691406 -6.205449104309082 -0.7621354579925538 -0.6362851738929749 0.026445574685931207
-38.504302978515625 45.33333206176758 -7.859598159790039 0.5469592760006586 -0.07043158759673436 0.8241082628568013
-38.504302978515625 2.6666667461395264 -7.859598159790039 0.5793520957231522 0.07043161988258362 0.8011774023373921
-38.862205505371094 45.33333206176758 -7.535837173461914 0.729044089714686 -0.07689045617977777 0.667155643304189
-38.862205505371094 2.6666667461395264 -7.535837173461914 0.7550978461901346 0.07689040154218674 0.6372147798538208
-39.13340759277344 45.33333206176758 -7.136634826660156 0.8705889880657196 -0.0768903096516927 0.467216486732165
-39.13340759277344 2.6666667461395264 -7.136634826660156 0.8888241449991862 0.07689025749762853 0.43196583787600196
-39.30253601074219 45.33333206176758 -6.684628486633301 0.9632125326565333 -0.06036908179521561 0.225665665098599
-39.30253601074219 2.6666667461395264 -6.684628486633301 0.9626036643981934 0.08451676368713379 0.2220290631055832
-39.30918884277344 2.215690851211548 0 0.9771025975545247 0.1847349355618159 0
-39.30918884277344 2.215690851211548 -6.205449104309082 0.9624541600545247 0.23059285804629326 0.06883902475237846
-39.159297943115234 1.7873289585113525 0 0.9114968578020731 0.39753059546152747 0
-39.159297943115234 1.7873289585113525 -6.205449104309082 0.8834723631540934 0.44943854212760925 0.053587205397586025
-38.9178466796875 1.4030606746673584 0 0.8001847267150879 0.5903904438018799 0
-38.9178466796875 1.4030606746673584 -6.205449104309082 0.7621338963508606 0.6362868905067445 0.026446084305644036
-38.59693908691406 1.0821548700332642 0 0.6487467885017395 0.75364750623703 0
-38.59693908691406 1.0821548700332642 -6.205449104309082 0.615969161192576 0.7767419914404551 0.04890661624570687
-38.212669372558594 0.8407030701637268 0 0.4647806187470754 0.8791109919548035 0
-38.212669372558594 0.8407030701637268 -6.205449104309082 0.4105445345242818 0.9022711316744486 0.02041673349837462
-37.78430938720703 0.6908127665519714 0 0.2575082629919052 0.9604926506678263 0
-37.78430938720703 0.6908127665519714 -6.205449104309082 0.20377514138817787 0.9717287222544352 -0.014440655708312988
-37.33333206176758 0.6399999856948853 0 0.06397949797766549 0.9964069638933454 0
-37.78430938720703 47.30918884277344 6.205449104309082 0.20377524569630623 -0.9717288116614023 0.014432789136966068
-38.212669372558594 47.159297943115234 6.205449104309082 0.41054421166578925 -0.902271697918574 -0.020421101401249565
-38.59693908691406 46.9178466796875 6.205449104309082 0.6159695585568745 -0.7767414152622223 -0.048906659086545304
-38.9178466796875 46.59693908691406 6.205449104309082 0.7621354579925538 -0.6362851738929749 -0.026445574685931207
-39.159297943115234 46.212669372558594 6.205449104309082 0.8834727704524994 -0.4494380454222361 -0.053587024100124836
-39.30918884277344 45.78430938720703 6.205449104309082 0.9624539117018381 -0.2305933857957522 -0.06883921350042024
-39.36000061035156 45.33333206176758 6.205449104309082 0.9933212796847025 -0.05584986135363579 -0.059411873420079545
14.836586952209473 46.9178466796875 -13.518508911132812 -0.09041874234875043 -0.7767898539702097 0.6128299037615458
8.88857364654541 47.159297943115234 -13.825455665588379 -0.038462841883301735 -0.8952316641807556 0.42939821382363635
8.921990394592285 46.9178466796875 -14.208268165588379 -0.05471307815363009 -0.7767895360787709 0.6170437236626942
-14.917909622192383 46.212669372558594 -14.074954986572266 0.128961489846309 -0.4310134003559748 0.8856593072414398
-20.814672470092773 46.212669372558594 -13.037567138671875 0.1801259145140648 -0.43101329604784644 0.8766858875751495
-14.939584732055664 45.78430938720703 -14.223270416259766 0.13980442161361376 -0.22103733445207277 0.9582692186037699
14.65385627746582 47.36000061035156 -12.268184661865234 -0.00755936186760664 -0.9968535999457041 0.055470749735832214
8.851323127746582 47.30918884277344 -13.39871597290039 -0.021360039245337248 -0.9687734047571818 0.22008946041266123
14.719071388244629 47.30918884277344 -12.714420318603516 -0.03409258555620909 -0.9687734146912892 0.21847963084777194
-20.84491539001465 45.78430938720703 -13.184374809265137 0.1951630711555481 -0.22103716060519218 0.9485445022583008
8.812105178833008 47.36000061035156 -12.949448585510254 -0.0037101335557443754 -0.9973030686378479 0.047842157738549364
32.30244064331055 46.59693908691406 -9.717118263244629 -0.24442536135514575 -0.6194132367769877 0.737252950668335
-14.8829927444458 46.59693908691406 -13.836041450500488 0.1116530584792296 -0.6194130678971608 0.768647809823354
-20.765954971313477 46.59693908691406 -12.801081657409668 0.15605819846192995 -0.6194129089514414 0.7608756323655446
14.781017303466797 47.159297943115234 -13.138279914855957 -0.06330964528024197 -0.8952316443125407 0.42644356191158295
2.998009204864502 45.78430938720703 -15.265677452087402 -0.028343843296170235 -0.22103631496429443 0.9679991006851196
32.37822341918945 46.212669372558594 -9.946369171142578 -0.28135591745376587 -0.43101254602273303 0.849625011285146
32.201717376708984 46.9178466796875 -9.412428855895996 -0.19523271918296814 -0.7767898142337799 0.5878947774569193
-14.836586952209473 46.9178466796875 -13.518508911132812 0.08874313781658807 -0.776789665222168 0.6130749980608622
-20.701204299926758 46.9178466796875 -12.486775398254395 0.12416115403175354 -0.7767901321252186 0.606893499692281
8.983928680419922 45.78430938720703 -14.917818069458008 -0.0844546922792991 -0.22103678807616234 0.9647242327531178
32.08110809326172 47.159297943115234 -9.047578811645508 -0.1362395609418551 -0.8952316443125407 0.4090246558189392
8.970893859863281 46.212669372558594 -14.768495559692383 -0.0782984010875225 -0.43101377288500464 0.8915673394997914
2.993659496307373 46.212669372558594 -15.115850448608398 -0.02644210122525692 -0.4310131718715032 0.894608457883199
-14.781017303466797 47.159297943115234 -13.138279914855957 0.06137821637094021 -0.8952316542466481 0.426725834608078
-20.623668670654297 47.159297943115234 -12.110410690307617 0.08603140090902646 -0.8952316443125407 0.4224463750918706
31.9466609954834 47.30918884277344 -8.640863418579102 -0.07143173304696877 -0.9687733550866444 0.2092684010664622
-14.719071388244629 47.30918884277344 -12.714420318603516 0.02985798427835107 -0.9687734146912892 0.2190984400610129
-20.5372371673584 47.30918884277344 -11.690858840942383 0.04251872220387061 -0.9687734047571818 0.21699729561805725
-14.65385627746582 47.36000061035156 -12.268184661865234 0.007398401253989764 -0.9973030941826956 0.047412075102329254
31.80511474609375 47.36000061035156 -8.212677001953125 -0.014619545744998113 -0.9973030856677464 0.04570459574460983
-20.446243286132812 47.36000061035156 -11.24915885925293 0.008869485231116414 -0.9976401925086975 0.04104013741016388
8.949896812438965 46.59693908691406 -14.527957916259766 -0.06821681931614876 -0.6194131473700205 0.7737132807572682
2.9866526126861572 46.59693908691406 -14.874500274658203 -0.02321484312415123 -0.6194134255250294 0.7763674259185791
26.680028915405273 45.78430938720703 -11.804630279541016 -0.2503295987844467 -0.2210376647611459 0.9355000058809916
-26.680028915405273 45.78430938720703 -11.804630279541016 0.24986430754264194 -0.2210371767481168 0.9356245497862498
32.42526626586914 45.78430938720703 -10.088685035705566 -0.3041810641686121 -0.22103745614488918 0.9194016357262929
2.97733998298645 46.9178466796875 -14.553729057312012 -0.018823067968090374 -0.7767896850903828 0.6191785633563995
-26.641319274902344 46.212669372558594 -11.65982437133789 0.23068346828222275 -0.4310135841369629 0.8647590974966685
26.641319274902344 46.212669372558594 -11.65982437133789 -0.23159097135066986 -0.43101322154204047 0.8645166456699371
2.966188669204712 47.159297943115234 -14.169623374938965 -0.013486467922727266 -0.8952314953009287 0.4309067328770955
2.9406704902648926 47.36000061035156 -13.290655136108398 -0.0008122744038701057 -0.9976401999592781 0.04197967890650034
2.9537575244903564 47.30918884277344 -13.74144172668457 -0.008555549041678507 -0.9687734047571818 0.22095797955989838
26.578962326049805 46.59693908691406 -11.426563262939453 -0.2012419030070305 -0.6194131175676981 0.7501916686693827
-26.578962326049805 46.59693908691406 -11.426563262939453 0.1999376763900121 -0.619412899017334 0.7505404651165009
-2.998009204864502 45.78430938720703 -15.265677452087402 0.02786241720120112 -0.22103624045848846 0.9680130680402119
26.4960880279541 46.9178466796875 -11.116543769836426 -0.16079710548122722 -0.7767897546291351 0.5982310672601063
-26.4960880279541 46.9178466796875 -11.116543769836426 0.15916110575199127 -0.7767898738384247 0.5986682971318562
26.396848678588867 47.159297943115234 -10.74531078338623 -0.1122804805636406 -0.8952316542466481 0.4162396391232808
-26.396848678588867 47.159297943115234 -10.74531078338623 0.11039477710922559 -0.8952316343784332 0.41674380501111347
-26.286222457885742 47.30918884277344 -10.331480979919434 0.0550362765789032 -0.9687732954819996 0.21416529268026352
-2.993659496307373 46.212669372558594 -15.115850448608398 0.025503233075141907 -0.43101322154204047 0.8946356376012166
26.169755935668945 47.36000061035156 -9.895803451538086 -0.01393391564488411 -0.9968535800774891 0.05422172447045644
26.286222457885742 47.30918884277344 -10.331480979919434 -0.059170699367920555 -0.9687732855478922 0.21306015799442926
-26.169755935668945 47.36000061035156 -9.895803451538086 0.014980652369558811 -0.9968535701433817 0.05394189556439717
-2.9866526126861572 46.59693908691406 -14.874500274658203 0.021865331878264744 -0.6194131175676981 0.776406854391098
-32.42526626586914 45.78430938720703 -10.088685035705566 0.30655598640441895 -0.18466435621182123 0.9273531337579091
20.84491539001465 45.78430938720703 -13.184374809265137 -0.1956347773472468 -0.22103741392493248 0.9484472771485646
-38.061279296875 45.78430938720703 -8.042319297790527 0.4055576423803965 -0.2305449197689692 0.8743545313676198
-2.97733998298645 46.9178466796875 -14.553729057312012 0.017130317476888497 -0.7767899135748545 0.6192274391651154
20.814672470092773 46.212669372558594 -13.037567138671875 -0.18104585260152817 -0.4310131222009659 0.8764964739481608
-32.37822341918945 46.212669372558594 -9.946369171142578 0.2859873423973719 -0.3973936041196187 0.8651315669218699
-2.966188669204712 47.159297943115234 -14.169623374938965 0.011535354269047577 -0.8952314058939616 0.4309634665648142
-38.00605773925781 46.212669372558594 -7.90297269821167 0.3633917570114136 -0.44936394691467285 0.8061529000600178
20.765954971313477 46.59693908691406 -12.801081657409668 -0.15738051508863765 -0.6194130976994832 0.7606030901273091
-2.9406704902648926 47.36000061035156 -13.290655136108398 0.001856630534998008 -0.9973030941826956 0.04794985055923462
-2.9537575244903564 47.30918884277344 -13.74144172668457 0.004277777935688694 -0.9687733948230743 0.2210821881890297
-32.30244064331055 46.59693908691406 -9.717118263244629 0.2510822589198748 -0.5902325014273325 0.7595412631829579
-8.983928680419922 45.78430938720703 -14.917818069458008 0.08397486805915833 -0.22103683526317278 0.9647660752137501
-37.91709899902344 46.59693908691406 -7.678504943847656 0.2931262344121933 -0.6361930131912232 0.703518295288086
20.701204299926758 46.9178466796875 -12.486775398254395 -0.12581984574596086 -0.7767900029818217 0.6065519253412882
-32.201717376708984 46.9178466796875 -9.412428855895996 0.20358281830946603 -0.7535117367903391 0.6158521970113118
20.623668670654297 47.159297943115234 -12.110410690307617 -0.08794316214819749 -0.8952317138512929 0.4220523337523142
-37.79887390136719 46.9178466796875 -7.380171775817871 0.26441805561383563 -0.776681621869405 0.5577402412891388
-8.970893859863281 46.212669372558594 -14.768495559692383 0.07736267211536565 -0.43101340532302856 0.891649176677068
20.5372371673584 47.30918884277344 -11.690858840942383 -0.04671029932796955 -0.968773345152537 0.21613392109672228
-32.08110809326172 47.159297943115234 -9.047578811645508 0.14586415017644563 -0.8790290753046671 0.44124922156333923
20.446243286132812 47.36000061035156 -11.24915885925293 -0.008073584642261267 -0.9976401925086975 0.041204105131328106
-37.65729904174805 47.159297943115234 -7.022933483123779 0.1648680328701933 -0.9022407035032908 0.37625302871068317
-8.949896812438965 46.59693908691406 -14.527957916259766 0.06687185168266296 -0.6194130678971608 0.7738308012485504
14.939584732055664 45.78430938720703 -14.223270416259766 -0.14028103277087212 -0.22103742385903993 0.9581995407740275
-31.9466609954834 47.30918884277344 -8.640863418579102 0.07385333840336118 -0.9652113233293805 0.2248909260545458
-37.499481201171875 47.30918884277344 -6.6247029304504395 0.08806592567513385 -0.9706169664859772 0.18588382937014103
-31.80511474609375 47.36000061035156 -8.212677001953125 0.01808487686018149 -0.9968535900115967 0.052981952826182045
-8.921990394592285 46.9178466796875 -14.208268165588379 0.05302602797746658 -0.7767897248268127 0.6171907385190327
14.917909622192383 46.212669372558594 -14.074954986572266 -0.12989087899525958 -0.4310136685768763 0.8855233291784922
-8.88857364654541 47.159297943115234 -13.825455665588379 0.036518278531730175 -0.8952315747737885 0.4295680671930313
-8.851323127746582 47.30918884277344 -13.39871597290039 0.01709667903681596 -0.9687734047571818 0.22046162063876787
14.8829927444458 46.59693908691406 -13.836041450500488 -0.1129889686902364 -0.6194125910600026 0.7684529225031534
-8.812105178833008 47.36000061035156 -12.949448585510254 0.004635321175945656 -0.9973030941826956 0.047761421118463786
31.80511474609375 0.6399999856948853 8.212677001953125 -0.017056473220388092 0.9968534807364146 -0.0533230776588122
26.169755935668945 0.6399999856948853 9.895803451538086 -0.013934190695484478 0.9968534807364146 -0.054222796112298965
20.446243286132812 0.6399999856948853 11.24915885925293 -0.010764991554121176 0.9968534608681996 -0.05493988965948422
14.65385627746582 0.6399999856948853 12.268184661865234 -0.006479580620569842 0.9973029834883553 -0.047547293560845506
8.812105178833008 0.6399999856948853 12.949448585510254 -0.005194289516657591 0.9962241768836976 -0.06698034554719925
2.9406704902648926 0.6399999856948853 13.290655136108398 -0.0010830540365229049 0.996853490670522 -0.055974009136358895
-2.9406704902648926 0.6399999856948853 13.290655136108398 0.0018566670561475413 0.9973029834883553 -0.04795079465423311
-8.812105178833008 0.6399999856948853 12.949448585510254 0.0064895773306489 0.9962241649627686 -0.06686730682849884
-14.65385627746582 0.6399999856948853 12.268184661865234 0.007398547072495733 0.997302974973406 -0.04741300855364118
-20.446243286132812 0.6399999856948853 11.24915885925293 0.014191455394029618 0.9962241530418396 -0.06566551625728607
-26.169755935668945 0.6399999856948853 9.895803451538086 0.014980947598814964 0.9968534708023071 -0.05394296223918597
-31.80511474609375 0.6399999856948853 8.212677001953125 0.015501627964632851 0.9973029664584568 -0.045413998620850694
-37.33333206176758 0.6399999856948853 6.205449104309082 0.06859413937975962 0.9891525010267893 -0.054751667504509285
-38.53883361816406 45.9596061706543 -7.709420680999756 0.5800907484122685 -0.31036412715911865 0.7313294155257088
-38.92768096923828 45.9596061706543 -7.2885966300964355 0.7722554703553517 -0.30651460339625675 0.5246423284212748
-38.15724563598633 46.52457809448242 -7.623010158538818 0.4264483352502187 -0.5929226577281952 0.6646373470624287
-38.53755569458008 46.52457809448242 -7.31817626953125 0.5835736691951752 -0.5801947315533955 0.5392340620358784
-37.628578186035156 47.33504867553711 -6.320971965789795 0.14969371091574432 -0.9750582218170166 0.09185148775577545
-37.793304443359375 47.260807037353516 -6.6304731369018555 0.21296029418174708 -0.9386331098420279 0.2195637731679848
-37.89792251586914 47.260807037353516 -6.476478576660156 0.32770318388938907 -0.9233770489692689 0.1571456864476204
-37.95265197753906 47.260807037353516 -6.298534393310547 0.3249850302934647 -0.9335271835327149 0.07177434265613557
-38.47194290161133 46.97294235229492 -6.555632591247559 0.5424179562500545 -0.8058787669454301 0.17272559074418883
-37.648040771484375 47.260807037353516 -6.746909141540527 0.19264882383868098 -0.9238849431276321 0.3020486459136009
-38.318695068359375 46.97294235229492 -6.874870777130127 0.4775647570689519 -0.798888087272644 0.32443998505671817
-38.95472717285156 46.52457809448242 -6.449149131774902 0.7749979297320048 -0.59292267759641 0.15158939299484092
-38.078372955322266 46.97294235229492 -7.134954929351807 0.36041412396090367 -0.8058785200119019 0.44062776224953787
-38.81145095825195 46.52457809448242 -6.915013790130615 0.7163050274054209 -0.5801944434642792 0.3438582196831703
-39.17564392089844 45.9596061706543 -6.77205753326416 0.8936048235212053 -0.3103636928967067 0.26985106617212296
-38.95472717285156 1.4754219055175781 -6.449149131774902 0.7749968965848286 0.5929239640633265 0.15158964289973179
-39.17564392089844 2.0403921604156494 -6.77205753326416 0.8936046702521188 0.3103639781475067 0.2698509437697274
-38.81145095825195 1.4754219055175781 -6.915013790130615 0.716304361820221 0.5801954567432404 0.34385789682467777
-38.92768096923828 2.0403921604156494 -7.2885966300964355 0.7722552418708801 0.30651507526636124 0.5246421794096628
-37.628578186035156 0.6649516224861145 -6.320971965789795 0.1496922254562378 0.9750590562820435 0.09184516668319703
-37.95265197753906 0.7391921281814575 -6.298534393310547 0.32498457431793215 0.9335269570350647 0.07176575958728791
-37.89792251586914 0.7391921281814575 -6.476478576660156 0.3277033299207688 0.9233766078948975 0.15714576691389084
-37.793304443359375 0.7391921281814575 -6.6304731369018555 0.21295854129961558 0.9386333567755563 0.21956323193652288
-37.648040771484375 0.7391921281814575 -6.746909141540527 0.19264164147898555 0.9238845556974411 0.30204980447888374
-38.078372955322266 1.0270588397979736 -7.134954929351807 0.36041395579065594 0.8058783241680689 0.4406289756298065
-38.318695068359375 1.0270588397979736 -6.874870777130127 0.47756541272004444 0.7988878985246022 0.3244404370586077
-38.15724563598633 1.4754219055175781 -7.623010158538818 0.42644819617271423 0.5929239491621653 0.6646363139152527
-38.47194290161133 1.0270588397979736 -6.555632591247559 0.5424190121037619 0.8058785370418003 0.1727249968264784
-38.53755569458008 1.4754219055175781 -7.31817626953125 0.5835731128851572 0.580195739865303 0.5392335454622904
-38.53883361816406 2.0403921604156494 -7.709420680999756 0.5800905610833849 0.3103643911225455 0.7313292963164193
32.44121551513672 2.6666667461395264 10.136930465698242 -0.3070753514766693 0.06715144366025926 -0.9472999453544617
26.693151473999023 2.6666667461395264 11.853719711303711 -0.25736389060815174 0.055959260712067284 -0.9626288016637166
20.85516929626465 2.6666667461395264 13.234142303466797 -0.2010833571354548 0.055959024777015046 -0.975938469171524
14.946932792663574 2.6666667461395264 14.27354907989502 -0.1400839750255857 0.047964741076741896 -0.9870046121733529
8.988347053527832 2.6666667461395264 14.968438148498535 -0.08085158541798593 0.06715027987957001 -0.9925400614738464
2.999483823776245 2.6666667461395264 15.316468238830566 -0.024811505739177973 0.0479642738189016 -0.9965872083391462
-2.999483823776245 2.6666667461395264 15.316468238830566 0.03466322273015976 0.06715013086795807 -0.9952241659164429
-8.988347053527832 2.6666667461395264 14.968438148498535 0.08662157071133454 0.05595879629254341 -0.9926667114098866
-14.946932792663574 2.6666667461395264 14.27354907989502 0.14406537016232807 0.0559589775900046 -0.9859694043795267
-20.85516929626465 2.6666667461395264 13.234142303466797 0.2051790143762316 0.047964977366583686 -0.9755527206829615
-26.693151473999023 2.6666667461395264 11.853719711303711 0.26274419426918033 0.06715135425329209 -0.9605404734611511
-32.44121551513672 2.6666667461395264 10.136930465698242 0.313076987862587 0.03730644409855206 -0.9470797677834828
-38.08000183105469 2.6666667461395264 8.089558601379395 0.39392078518867496 0.06700431555509567 -0.9121944546699524
-39.36000061035156 2.6666667461395264 6.205449104309082 0.9945069154103596 0.055850033958752945 -0.039566906789938606
-39.30253601074219 2.6666667461395264 6.684628486633301 0.9632125496864319 0.06036911479064396 -0.2256655895284244
-39.30253601074219 45.33333206176758 6.684628486633301 0.9626036405563355 -0.0845167174935341 -0.2220291718840599
-39.13340759277344 45.33333206176758 7.136634826660156 0.8888241549332936 -0.07689031461874643 -0.43196583290894824
-39.13340759277344 2.6666667461395264 7.136634826660156 0.8705889781316121 0.0768902525305748 -0.46721649169921875
-38.862205505371094 45.33333206176758 7.535837173461914 0.7550978660583496 -0.07689045866330464 -0.6372147798538208
-38.862205505371094 2.6666667461395264 7.535837173461914 0.7290440698464711 0.07689039905865987 -0.667155643304189
-38.504302978515625 45.33333206176758 7.859598159790039 0.5793522099653879 -0.07043158883849779 -0.8011773626009623
-38.504302978515625 2.6666667461395264 7.859598159790039 0.5469591816266377 0.07043161988258362 -0.8241083025932312
-38.00605773925781 1.7873289585113525 7.90297269821167 0.36339178681373596 0.44936446348826087 -0.806152453025182
-38.53883361816406 2.0403921604156494 7.709420680999756 0.5800905738558088 0.3103644060237067 -0.7313293048313685
-38.061279296875 2.215690851211548 8.042319297790527 0.4055575579404831 0.23054438705245653 -0.8743548492590586
-38.92768096923828 2.0403921604156494 7.2885966300964355 0.7722552418708801 0.30651506284872687 -0.5246421794096628
-38.15724563598633 1.4754219055175781 7.623010158538818 0.42644820610682166 0.5929239739974339 -0.6646363039811451
-38.53755569458008 1.4754219055175781 7.31817626953125 0.5835731128851572 0.580195739865303 -0.5392335454622904
-37.78430938720703 0.6908127665519714 6.205449104309082 0.20377514138817787 0.9717287222544352 0.01444063459833463
-37.628578186035156 0.6649516224861145 6.320971965789795 0.14969222880899907 0.9750590562820435 -0.09184517115354539
-37.793304443359375 0.7391921281814575 6.6304731369018555 0.21295854369444506 0.938633382320404 -0.21956322714686394
-37.89792251586914 0.7391921281814575 6.476478576660156 0.327703332901001 0.9233766078948975 -0.1571457698941231
-37.95265197753906 0.7391921281814575 6.298534393310547 0.32498457431793215 0.9335269570350647 -0.07176578789949417
-39.30918884277344 2.215690851211548 6.205449104309082 0.9624541600545247 0.23059285804629326 -0.06883902475237846
-38.212669372558594 0.8407030701637268 6.205449104309082 0.4105445345242818 0.9022711316744486 -0.02041675274570783
-37.499481201171875 0.6908127665519714 6.6247029304504395 0.08805998073269923 0.9706173042456309 -0.18588480912148952
-38.59693908691406 1.0821548700332642 6.205449104309082 0.6159691512584686 0.77674201130867 -0.04890662059187889
-38.47194290161133 1.0270588397979736 6.555632591247559 0.5424190035888127 0.805878562586648 -0.1727250005517687
-37.648040771484375 0.7391921281814575 6.746909141540527 0.19264163030311465 0.9238845854997635 -0.30204980447888374
-37.65729904174805 0.8407030701637268 7.022933483123779 0.16486410268892843 0.9022401372591654 -0.3762549261252085
-38.318695068359375 1.0270588397979736 6.874870777130127 0.47756541272004444 0.7988879183928171 -0.3244404370586077
-38.9178466796875 1.4030606746673584 6.205449104309082 0.7621338963508606 0.6362868905067445 -0.026446085423231125
-38.95472717285156 1.4754219055175781 6.449149131774902 0.7749968866507212 0.5929239739974339 -0.15158964631458122
-39.159297943115234 1.7873289585113525 6.205449104309082 0.8834723631540934 0.4494385371605555 -0.0535872063289086
-38.078372955322266 1.0270588397979736 7.134954929351807 0.36041396004813053 0.8058783241680689 -0.4406289671148572
-37.79887390136719 1.0821548700332642 7.380171775817871 0.2644178867340088 0.7766821881135304 -0.5577398637930552
-38.81145095825195 1.4754219055175781 6.915013790130615 0.716304361820221 0.580195461710294 -0.34385789682467777
-39.17564392089844 2.0403921604156494 6.77205753326416 0.8936046702521188 0.3103639675038201 -0.26985094589846476
-37.91709899902344 1.4030606746673584 7.678504943847656 0.2931261569261551 0.6361947059631348 -0.7035166263580322
37.33333206176758 47.36000061035156 2.1778032343119794E-16 -0.06397825053759983 -0.9964071682521275 0
37.78430938720703 47.30918884277344 0 -0.2575083300471306 -0.9604924917221069 0
38.212669372558594 47.159297943115234 0 -0.46478042006492615 -0.8791111707687378 0
38.59693908691406 46.9178466796875 0 -0.6487478017807007 -0.7536463538805643 0
38.9178466796875 46.59693908691406 0 -0.8001859386761982 -0.590388834476471 0
39.159297943115234 46.212669372558594 0 -0.9114968180656433 -0.3975309729576111 0
39.30918884277344 45.78430938720703 0 -0.977102518081665 -0.18473513424396515 0
14.836586952209473 1.0821548700332642 13.518508911132812 -0.09041864859561125 0.776790589094162 -0.6128293474515278
8.88857364654541 0.8407030701637268 13.825455665588379 -0.038462837847570576 0.8952315946420033 -0.42939806977907813
8.921990394592285 1.0821548700332642 14.208268165588379 -0.05471301668634017 0.7767902612686157 -0.6170431872208912
-14.917909622192383 1.7873289585113525 14.074954986572266 0.1289614550769329 0.43101345499356586 -0.8856591085592905
-20.814672470092773 1.7873289585113525 13.037567138671875 0.1801258623600006 0.4310133457183838 -0.8766856789588928
-14.939584732055664 2.215690851211548 14.223270416259766 0.13980445638298988 0.22103685388962427 -0.9582694470882416
8.851323127746582 0.6908127665519714 13.39871597290039 -0.021360089536756277 0.9687735040982564 -0.22008998692035675
14.719071388244629 0.6908127665519714 12.714420318603516 -0.034092665339509644 0.9687734842300415 -0.21848014245430628
-20.84491539001465 2.215690851211548 13.184374809265137 0.19516311834255853 0.22103667507568994 -0.9485447208086649
32.30244064331055 1.4030606746673584 9.717118263244629 -0.24442491928736368 0.6194149255752563 -0.7372515698273976
-14.8829927444458 1.4030606746673584 13.836041450500488 0.11165284489591916 0.619414746761322 -0.7686463892459869
-20.765954971313477 1.4030606746673584 12.801081657409668 0.1560579054057598 0.6194145778814951 -0.7608742515246073
14.781017303466797 0.8407030701637268 13.138279914855957 -0.06330963286260763 0.8952315847078959 -0.4264433979988098
2.998009204864502 2.215690851211548 15.265677452087402 -0.028343847642342247 0.22103583564360935 -0.9679993192354838
32.37822341918945 1.7873289585113525 9.946369171142578 -0.2813558702667554 0.4310126155614853 -0.8496248126029968
32.201717376708984 1.0821548700332642 9.412428855895996 -0.19523253043492633 0.7767905195554097 -0.5878942310810089
-14.836586952209473 1.0821548700332642 13.518508911132812 0.08874306889871755 0.7767903606096903 -0.6130744417508442
-20.701204299926758 1.0821548700332642 12.486775398254395 0.12416104475657144 0.7767907977104187 -0.6068929235140482
8.983928680419922 2.215690851211548 14.917818069458008 -0.08445470531781514 0.22103630503018695 -0.9647244612375895
32.08110809326172 0.8407030701637268 9.047578811645508 -0.13623952120542526 0.8952315946420033 -0.40902452170848846
8.970893859863281 1.7873289585113525 14.768495559692383 -0.07829838742812474 0.4310138374567032 -0.8915671010812123
2.993659496307373 1.7873289585113525 15.115850448608398 -0.02644210122525692 0.43101324141025543 -0.8946082293987274
